7.485 69.997 0.454
8.007 69.799 0.571
8.520 69.506 0.535
10.315 69.929 0.321
10.975 69.677 0.349
-62.821 69.010 0.414
-62.084 68.914 0.282
-61.120 68.595 0.416
-15.665 69.462 1.420
-11.975 69.443 1.508
-10.995 69.280 1.469
-10.425 69.377 1.563
7.090 69.311 0.833
9.015 69.271 0.315
9.595 68.996 0.263
11.470 69.489 0.399
11.820 69.355 0.417
-60.625 68.469 0.544
-60.000 68.309 0.879
-59.390 68.154 1.277
-18.116 67.820 1.537
0.980 67.714 1.139
-18.525 66.813 1.508
-18.375 67.183 1.706
-33.595 65.509 0.416
-3.700 66.206 0.390
-3.000 65.971 0.772
-2.050 65.652 0.885
1.075 65.910 1.214
1.610 65.570 1.193
-33.535 65.484 0.395
-33.000 65.261 0.417
-32.000 64.844 0.811
-31.335 64.566 1.207
-1.545 65.482 0.998
-1.000 65.299 0.893
0.000 64.963 1.103
0.815 64.689 0.862
2.115 65.250 1.308
2.634 64.919 1.960
-31.010 64.431 0.957
-23.605 63.548 1.405
-4.936 63.749 0.561
-38.665 63.019 0.647
-37.933 62.780 0.667
-37.261 62.578 0.915
-24.640 63.040 1.603
-23.998 63.219 1.620
-4.934 63.275 0.629
-36.782 62.408 0.805
-36.157 62.220 0.850
-26.750 61.737 1.458
-26.120 61.529 1.360
-57.215 60.794 0.411
-26.233 61.451 1.510
-59.720 59.903 0.118
-59.082 59.604 0.251
-57.870 60.227 0.298
-56.875 59.524 0.131
-51.790 59.883 0.833
-51.245 60.035 1.007
-20.905 59.785 1.030
-20.410 59.547 0.876
177.181 59.864 -0.584
-59.079 59.395 0.143
-57.595 59.147 0.502
-57.221 59.343 0.356
-51.720 58.968 0.662
-42.655 59.099 0.375
-42.000 58.927 0.338
-41.000 58.664 0.501
-40.440 58.516 0.499
-20.205 59.448 0.653
177.190 58.999 -0.472
-178.252 57.923 -0.666
-177.015 57.628 -0.671
-55.971 57.773 0.262
-55.410 57.629 0.319
-53.965 57.754 0.789
-53.185 58.175 0.050
-40.270 58.472 0.357
-32.737 57.753 1.001
-32.230 57.607 1.342
177.201 57.998 -0.754
-55.793 57.298 0.494
-54.967 57.090 0.825
-54.213 57.021 0.908
-24.823 57.229 1.190
-24.070 56.944 1.028
-23.305 56.918 1.105
177.207 57.420 -0.780
-53.745 56.299 0.382
-53.255 55.867 0.384
-23.845 56.491 0.903
-155.725 53.910 -0.344
-163.585 52.542 -0.619
-159.745 53.066 -0.362
-163.525 52.452 -0.408
-163.475 52.377 -0.285
-171.835 50.526 -0.189
-171.660 50.251 0.087
-44.664 50.346 1.276
-44.480 50.375 1.423
-41.375 48.539 0.537
-14.719 48.599 0.549
-14.181 48.752 0.704
-130.735 48.359 -0.025
-129.855 48.166 -0.140
-129.000 47.979 0.022
-128.115 47.785 -0.135
-127.415 47.632 -0.302
-42.025 48.392 0.581
-130.855 47.312 0.145
-129.911 47.060 0.065
-128.821 46.701 -0.171
-128.286 46.593 -0.300
-126.704 47.074 -0.257
-126.375 46.681 -0.255
-127.955 46.394 -0.287
-7.865 45.990 -0.601
-131.545 45.294 -0.004
-131.080 45.073 0.184
-130.051 44.651 0.142
-129.155 44.713 -0.291
-126.590 44.640 -0.069
-126.160 44.643 -0.371
-43.850 44.911 0.758
-43.485 44.728 0.964
-8.583 44.757 -0.940
-129.984 44.449 0.136
-53.280 43.535 0.017
-45.641 44.026 0.760
-45.349 43.867 0.606
-8.579 44.493 -1.202
32.228 43.782 -2.286
32.680 43.592 -2.770
-53.370 43.452 -0.179
32.156 43.064 -1.951
33.029 43.294 -2.705
33.979 42.896 -2.367
37.257 42.669 -0.292
37.866 42.846 -0.864
38.846 42.604 -1.050
138.205 42.614 -1.004
-64.033 41.638 -0.066
-60.540 41.794 -1.039
-60.338 41.853 -0.977
-13.245 42.140 -0.198
5.185 41.553 -1.208
38.026 42.333 -0.165
39.179 42.420 -1.200
136.380 41.829 -1.034
137.000 42.096 -1.129
137.715 42.403 -1.091
-125.517 40.711 -0.301
-125.499 40.505 -0.673
-64.250 41.449 -0.278
-59.905 41.116 -0.879
-13.630 40.504 -0.451
5.370 41.399 -1.330
5.920 40.941 -1.698
146.132 40.816 0.318
146.703 41.156 0.190
147.575 40.525 0.111
159.950 41.100 0.044
-125.495 40.460 -0.417
-13.545 40.495 -0.653
-13.244 40.463 -0.715
6.345 39.860 -1.055
6.550 39.842 -0.934
145.390 40.238 0.114
145.607 39.893 0.355
146.830 40.339 0.270
147.945 40.000 0.153
150.816 40.047 0.292
-72.270 38.598 -0.923
5.548 38.527 -0.270
145.433 38.855 0.444
145.526 39.354 0.368
147.095 39.238 0.321
148.128 39.086 0.123
148.635 39.022 0.084
-68.880 38.065 -0.137
2.446 37.649 -0.511
5.609 37.999 -0.327
145.335 38.331 0.488
147.690 38.469 0.144
-123.505 37.217 -0.356
-123.395 37.271 -0.321
-74.040 36.507 -0.178
-70.260 37.117 -0.025
-32.302 37.298 0.870
2.494 37.474 -0.667
2.517 37.387 -0.602
5.675 37.418 -0.566
153.250 36.694 -0.104
153.906 36.741 -0.182
154.963 36.816 -0.112
155.575 36.860 -0.168
-73.707 36.443 -0.134
-73.415 36.386 -0.190
-12.900 35.847 -0.395
145.155 36.266 0.125
146.014 36.097 0.101
146.611 35.775 -0.003
152.640 36.400 -0.097
-121.980 34.830 -0.681
-72.692 34.752 -0.443
-71.927 34.633 -0.120
-69.845 34.537 -0.203
-36.510 34.591 0.168
-36.400 34.925 0.333
-10.794 34.709 0.061
-10.422 34.573 0.205
146.477 34.531 -0.036
146.550 35.386 -0.050
-73.150 33.998 -0.606
-72.185 33.737 -0.464
-70.540 34.141 -0.264
-37.695 33.929 -0.227
-37.095 34.310 -0.158
-12.715 34.010 0.179
-10.530 34.484 -0.292
-10.347 34.171 -0.528
146.489 34.327 -0.022
147.070 34.059 0.015
147.665 34.035 0.012
149.355 33.922 0.141
150.120 33.859 0.023
152.019 33.962 -0.046
152.845 33.876 -0.158
153.915 33.997 0.058
154.560 34.021 0.102
-160.231 32.636 -0.033
-73.600 33.129 -0.723
-73.450 33.419 -0.733
-71.775 32.618 -0.511
-71.325 32.957 -0.609
34.161 32.838 0.295
143.350 33.255 0.217
-160.224 31.999 0.240
-76.510 31.773 -0.459
-76.202 32.037 -0.394
-69.807 32.056 -0.119
-69.010 31.671 0.070
-11.890 32.282 0.428
-11.145 32.182 0.178
33.859 32.108 0.758
34.610 32.398 0.462
138.092 32.250 -0.441
142.985 32.246 -0.056
143.740 31.864 0.102
-160.219 31.483 -0.013
-72.740 30.830 -0.632
-68.590 31.469 0.207
-68.000 31.184 0.180
-67.031 30.692 0.189
143.982 31.069 0.080
144.772 31.005 0.018
146.136 30.829 -0.125
147.199 30.690 -0.208
148.032 30.707 -0.208
148.755 30.725 -0.243
-66.530 30.425 0.188
-66.293 30.299 0.338
-65.405 29.826 0.430
-29.250 30.233 0.990
-27.740 29.709 0.843
-27.415 29.596 0.747
136.170 29.658 -0.645
137.000 29.836 -0.832
137.695 29.985 -0.429
-71.629 28.543 -0.225
-63.635 28.875 0.353
-63.185 28.613 0.316
-158.756 27.519 0.119
-111.793 27.532 0.059
-71.500 28.497 -0.348
-71.071 28.166 -0.248
-69.679 27.814 -0.151
-69.275 27.701 -0.015
-62.705 28.334 0.277
-62.077 27.967 -0.014
-61.455 27.605 -0.397
-20.868 27.951 0.198
147.115 27.588 0.180
150.050 27.729 -0.045
-160.283 26.950 0.821
-158.754 26.992 0.744
-111.600 27.407 0.402
-111.437 27.302 0.474
-89.826 26.985 -0.978
-88.944 27.054 -0.831
-88.008 26.945 -0.664
-87.072 26.785 -0.462
-86.420 26.626 -0.678
-60.745 27.191 -0.529
-59.896 26.681 -0.657
146.335 27.186 0.109
147.004 27.136 0.190
147.850 27.069 0.147
149.324 27.167 0.006
149.802 26.972 0.108
-160.281 26.192 0.694
-158.751 26.192 0.602
-93.874 25.928 -1.507
-93.160 25.914 -1.573
-92.005 25.763 -1.505
-90.884 25.922 -1.513
-89.950 25.985 -1.213
-88.928 26.130 -0.981
-87.968 26.127 -0.793
-86.964 26.033 -0.554
-86.254 25.913 -0.267
-75.260 25.709 0.542
-59.068 26.164 -0.729
-58.128 25.576 -0.744
150.335 26.416 0.225
157.704 25.528 0.062
-94.725 25.225 -1.767
-93.983 24.989 -1.689
-93.090 24.950 -1.470
-92.250 24.731 -1.215
-86.734 25.452 -0.445
-86.227 25.450 -0.330
-75.070 25.365 0.471
-68.070 24.950 -0.181
-56.960 24.944 -0.528
-22.779 24.765 0.181
146.140 25.181 -0.121
157.611 25.118 0.177
-108.620 23.634 -0.300
-108.465 23.526 -0.396
-95.560 24.152 -1.571
-94.879 24.057 -1.775
-94.048 23.976 -1.661
-93.171 24.148 -1.366
-92.356 24.407 -1.076
-54.425 24.283 -0.772
-53.352 24.000 -0.793
-52.257 23.714 -0.736
-22.930 24.203 0.173
-21.660 23.815 0.126
-21.000 23.690 0.210
-20.295 23.557 0.115
-157.551 23.395 1.175
-108.854 22.615 -0.927
-108.040 23.230 -0.444
-95.060 22.989 -1.608
-93.892 23.123 -1.277
-93.436 23.032 -0.845
-50.840 23.348 -0.771
-46.850 22.783 -0.767
-46.470 22.779 -0.905
-44.047 23.403 -0.566
-43.499 23.205 -0.314
-19.715 23.447 0.129
-18.936 23.210 0.104
-17.862 22.988 0.141
-17.495 23.374 0.355
65.384 22.752 0.202
65.697 22.763 0.078
125.255 22.650 -0.977
157.105 22.885 0.559
-108.588 22.455 -0.723
-108.085 22.179 -0.811
-107.370 21.761 -0.486
-95.570 22.453 -1.233
-95.060 21.848 -1.190
-94.234 22.065 -0.904
-67.838 22.266 -0.126
-67.255 22.248 -0.302
-66.490 22.137 -0.165
65.032 22.193 0.138
125.345 22.425 -0.827
134.185 21.970 -0.235
156.980 22.335 0.801
-94.857 21.219 -1.040
133.870 21.410 -0.438
-159.310 19.580 1.193
60.365 20.133 0.343
60.570 20.004 0.666
64.055 19.905 -0.028
64.938 19.878 -0.309
66.095 19.766 0.514
89.015 19.505 -0.914
155.235 19.997 0.186
-18.972 19.099 0.701
64.919 19.479 -0.062
65.895 19.411 0.564
67.993 19.106 0.895
68.770 18.695 1.006
86.815 18.654 0.058
88.129 18.820 -0.875
88.750 19.290 -0.934
119.224 18.991 -1.452
156.216 18.961 0.112
-20.992 17.510 1.423
-20.042 17.518 1.287
-19.078 17.977 0.890
64.924 17.876 -0.459
68.202 18.038 0.509
68.758 18.112 0.434
87.019 17.928 -0.506
88.014 17.923 -0.758
88.615 18.063 -0.746
116.304 17.971 -0.728
156.004 18.025 0.249
-23.606 16.804 1.683
-20.950 17.203 1.275
-20.185 16.630 1.321
-18.571 17.220 0.724
-18.177 17.212 0.676
64.812 17.243 -0.714
66.640 17.143 -0.047
68.815 17.406 0.556
84.018 16.606 -0.420
86.500 16.797 -0.140
87.088 16.991 -0.476
87.830 17.228 -0.685
88.949 17.225 -0.562
115.542 16.637 -0.362
-105.655 16.074 0.063
-105.260 16.109 -0.041
-23.795 15.962 1.296
-19.755 16.308 1.143
-19.023 16.038 0.988
-18.318 16.395 0.652
41.675 15.981 0.986
53.987 16.278 0.244
83.093 15.578 -0.400
84.100 16.101 -0.676
84.685 16.327 -0.614
86.381 15.729 -0.299
86.761 16.237 -0.397
115.705 16.300 -0.825
-66.560 14.872 0.542
-66.460 14.660 0.463
-23.988 15.105 1.820
67.875 15.238 0.080
81.450 14.621 -0.413
81.535 14.566 -0.322
83.123 15.019 -0.263
83.950 14.683 -0.146
150.020 14.832 0.174
150.955 15.128 0.129
-67.692 14.015 0.225
-66.665 14.015 0.241
-66.345 14.415 0.412
-24.242 13.976 1.037
81.290 13.970 -0.062
82.051 13.879 -0.068
82.906 13.766 -0.068
83.830 14.138 -0.088
-19.635 12.639 0.315
-18.964 12.915 0.436
-18.440 13.132 0.657
81.305 13.074 0.229
81.837 12.973 -0.064
83.035 12.869 -0.026
83.535 12.909 -0.092
-19.797 12.147 0.145
-19.440 11.581 0.082
69.375 12.014 0.392
69.850 12.177 0.488
81.229 12.078 0.188
82.070 12.127 -0.101
82.820 12.038 -0.077
-87.960 10.773 0.966
-19.000 10.888 0.220
81.351 11.136 -0.116
81.681 11.228 -0.233
-104.120 10.003 -0.177
-87.540 9.604 0.610
-87.089 9.817 0.732
-86.500 9.502 0.467
-55.645 9.806 -1.619
-55.365 9.718 -1.005
-53.380 9.651 -0.739
-52.200 9.626 -0.568
-18.635 10.313 0.249
-104.806 9.086 -0.246
-104.156 9.028 -0.278
-86.185 9.265 0.435
-55.648 8.821 -0.891
-52.580 8.792 -0.241
-52.380 9.231 -0.498
71.820 8.559 0.388
-103.988 8.467 -0.108
-55.535 8.494 -0.724
71.365 8.360 0.406
71.590 8.459 0.370
-84.535 6.931 0.565
-84.375 6.770 0.477
-50.775 6.814 -0.575
-49.611 6.569 -0.868
-13.670 6.766 0.531
-12.875 6.561 0.436
-51.080 6.420 -0.170
-49.520 6.472 -0.917
-49.045 5.931 -0.749
-48.234 5.644 -0.676
-46.235 5.681 -0.121
-12.940 6.480 0.421
-12.155 5.666 0.328
50.895 5.661 -0.360
-48.660 5.251 -0.555
-47.922 4.889 -0.578
-47.125 4.899 -0.411
-46.197 5.148 -0.188
-45.425 4.509 0.138
-11.751 5.118 0.338
-11.079 4.846 0.309
-10.251 4.559 0.368
0.100 4.719 -0.506
1.360 4.524 -0.622
1.710 4.529 -0.476
2.940 4.646 -0.402
3.816 4.865 -0.488
-47.846 4.325 -0.336
-46.875 4.229 -0.410
-45.997 4.071 -0.296
-45.201 3.702 -0.197
-10.972 4.316 0.324
-10.115 4.481 0.335
-8.517 3.562 0.664
-7.964 3.649 0.534
-2.874 3.778 0.225
-2.380 4.001 0.700
-0.932 4.160 -0.332
-0.133 4.277 -0.158
1.014 4.375 -0.462
2.132 4.127 -0.454
2.732 3.910 -0.295
3.951 4.028 -0.427
92.875 3.598 -0.641
-94.535 2.709 0.193
-94.345 2.689 0.222
-47.705 3.386 -0.434
-46.895 2.802 -0.605
-45.897 3.046 -0.248
-45.092 2.947 -0.082
-44.478 2.791 -0.015
-43.255 2.631 -0.050
-8.538 3.482 0.641
-3.800 3.088 -0.410
-3.270 3.429 -0.723
2.472 3.308 -0.275
2.802 3.268 -0.224
3.952 3.286 -0.477
4.762 3.024 -0.103
5.655 2.687 0.268
7.215 2.618 0.773
8.258 2.881 0.720
8.677 2.654 0.615
93.230 3.223 -0.918
93.705 2.722 -1.219
-91.655 2.291 0.252
-91.445 2.254 0.258
-80.120 2.025 -0.005
-46.757 2.356 -0.707
-46.078 2.006 -0.434
-44.937 2.142 -0.172
-43.903 1.980 -0.035
-43.365 2.145 0.013
5.420 2.409 0.242
5.797 2.029 0.577
6.703 2.093 0.940
8.415 2.230 0.919
8.816 2.250 1.016
49.405 1.934 -0.526
94.209 2.151 -1.426
-83.708 1.114 -0.211
-45.765 1.411 -0.416
-44.801 1.321 -0.017
-43.974 1.256 0.079
-43.306 1.259 0.091
5.550 1.497 0.678
47.020 0.833 -1.247
-42.600 -0.346 0.126
-42.285 0.026 -0.027
-41.318 -0.201 -0.032
-40.420 -0.335 0.280
-38.260 -0.411 0.329
44.120 -0.388 -0.361
44.720 0.099 -0.043
-81.880 -1.394 0.734
-41.920 -1.166 -0.140
-40.900 -1.067 0.200
-38.565 -0.830 0.003
-38.415 -0.624 0.219
44.150 -0.974 -0.111
44.939 -1.018 -0.038
45.500 -1.356 0.254
-42.215 -1.705 -0.209
-41.205 -1.533 0.207
43.146 -2.256 -0.079
44.020 -1.506 -0.047
44.831 -2.325 0.072
56.925 -2.141 0.669
-81.750 -2.619 0.570
-35.915 -2.897 0.407
-35.272 -3.320 0.657
-34.400 -3.282 0.201
8.020 -3.489 0.275
42.851 -3.146 0.104
43.856 -3.280 0.111
44.925 -2.541 0.050
56.325 -3.093 0.670
56.730 -2.984 0.647
-105.882 -4.280 -0.533
-102.962 -4.136 -0.413
-11.821 -4.493 0.214
8.271 -3.929 0.134
42.250 -4.449 0.386
42.580 -3.581 0.142
44.035 -3.601 0.040
56.480 -3.580 0.742
56.520 -3.517 0.696
79.820 -3.510 -0.828
-106.000 -4.829 -0.459
-34.595 -4.507 0.677
-12.550 -4.852 0.223
-11.955 -4.934 0.348
9.059 -4.749 -0.121
42.248 -5.339 0.711
43.119 -4.828 0.022
43.643 -4.831 0.155
-138.140 -6.402 0.577
-34.323 -5.598 0.402
-11.626 -5.526 0.527
9.134 -6.270 -0.322
42.198 -6.000 0.638
79.910 -5.500 -0.755
-137.560 -7.211 0.602
-137.450 -7.365 0.570
-33.750 -7.066 0.270
-33.089 -6.915 0.233
-32.204 -7.133 -0.002
9.257 -6.969 -0.300
10.031 -7.103 -0.243
42.149 -6.657 0.408
43.310 -7.382 0.290
101.405 -7.404 -0.967
101.691 -7.132 -1.045
-138.250 -8.341 0.810
-137.120 -7.826 0.576
-32.853 -7.721 -0.063
-32.165 -8.189 -0.357
-14.685 -8.151 -0.073
-14.175 -7.814 0.115
-13.163 -8.287 0.641
9.200 -7.646 -0.140
10.289 -8.055 0.015
42.970 -8.249 0.185
103.755 -8.316 -0.827
-138.670 -8.698 0.591
-138.470 -8.528 0.704
-81.635 -8.688 -0.115
-81.435 -8.607 -0.570
-33.673 -9.315 0.323
-32.676 -9.094 -0.035
-32.190 -8.864 -0.235
-13.515 -8.758 0.481
-13.137 -8.746 0.585
10.450 -8.979 0.396
10.555 -9.196 0.569
42.058 -9.247 0.996
103.560 -8.583 -0.774
-140.650 -10.378 0.819
-140.245 -10.034 0.529
-34.955 -10.444 0.281
-34.115 -10.421 0.151
-33.335 -9.564 0.132
10.500 -9.500 0.619
10.686 -9.865 0.967
42.068 -9.726 1.096
106.030 -9.753 -0.173
153.005 -10.101 -0.468
153.853 -10.126 -0.418
-140.820 -10.522 0.942
-35.690 -11.286 0.132
-34.977 -10.914 0.325
-34.359 -10.844 0.282
11.343 -11.334 1.293
11.600 -11.483 1.253
42.673 -11.082 1.179
118.890 -11.423 0.551
-142.955 -12.299 0.362
-142.123 -11.609 0.471
-79.715 -11.911 -0.336
-36.694 -12.193 0.650
-36.052 -12.013 0.307
-35.490 -12.212 0.314
11.369 -11.523 1.271
11.675 -11.514 1.090
42.356 -11.856 1.099
42.555 -11.677 1.283
50.033 -12.189 1.051
115.975 -11.788 0.287
118.873 -11.686 0.546
-37.541 -13.274 0.644
-37.145 -13.033 0.430
-36.151 -12.630 0.277
11.336 -12.616 1.194
11.635 -12.770 1.251
41.892 -12.898 0.980
42.635 -12.739 0.422
44.252 -13.218 0.387
44.565 -13.386 0.295
46.093 -12.699 0.735
46.670 -13.204 0.595
119.096 -13.209 0.387
-145.805 -13.958 0.300
-145.420 -13.774 0.371
-78.170 -13.836 -0.222
-37.859 -14.161 0.545
-37.185 -13.664 0.380
11.078 -14.041 1.052
43.136 -13.538 0.515
44.177 -13.646 0.291
45.074 -13.883 0.301
45.733 -13.841 0.177
111.984 -13.906 -0.061
-149.250 -15.452 0.863
-77.072 -15.379 0.086
-37.686 -15.306 0.289
-37.255 -15.249 0.271
11.030 -14.804 0.675
44.285 -14.529 0.277
111.365 -15.361 -0.098
111.771 -15.350 -0.070
113.080 -15.345 0.067
114.819 -15.457 -0.139
118.485 -14.751 -0.376
118.555 -14.791 -0.265
-149.550 -16.073 0.907
-114.535 -16.024 -0.154
-114.000 -15.947 -0.168
-112.974 -15.801 -0.206
-112.000 -15.661 -0.332
-111.485 -15.588 -0.362
-76.794 -15.714 0.131
-76.355 -16.047 0.223
10.440 -16.266 0.297
10.758 -15.961 0.497
110.370 -16.192 -0.149
110.565 -16.317 -0.051
112.076 -16.063 0.082
114.892 -15.631 -0.045
117.467 -15.926 -0.189
117.641 -15.994 -0.182
-114.725 -17.473 -0.085
-114.065 -17.391 -0.044
-112.775 -17.231 -0.167
-112.325 -17.175 -0.195
10.216 -16.844 0.294
10.629 -16.824 0.375
40.125 -17.180 0.682
41.003 -16.980 0.708
86.190 -17.025 0.061
89.485 -17.025 -0.540
90.000 -17.025 -0.231
90.795 -17.025 -0.016
109.215 -17.424 -0.016
109.887 -17.333 -0.084
111.071 -17.000 0.004
111.818 -16.933 0.177
-115.505 -17.569 -0.103
-115.220 -17.534 -0.003
9.210 -17.949 0.455
9.954 -18.121 0.368
38.470 -18.095 0.118
38.590 -18.336 0.022
39.791 -18.077 0.156
40.645 -18.187 0.840
109.344 -17.806 0.053
109.978 -17.955 0.142
110.930 -17.822 0.237
111.980 -17.626 0.087
-37.310 -18.885 0.775
10.210 -18.615 0.715
38.915 -18.990 0.054
40.070 -19.004 0.144
108.470 -18.972 0.038
108.973 -18.893 0.067
109.605 -18.784 0.118
5.115 -20.265 0.069
40.410 -19.698 0.570
40.655 -20.198 0.814
108.375 -19.622 0.083
108.889 -19.719 0.272
109.775 -20.168 0.203
-38.326 -21.372 0.687
54.410 -20.573 0.929
106.485 -20.987 0.213
106.725 -21.244 0.218
111.026 -21.341 0.074
-176.780 -22.255 0.303
-176.452 -22.138 0.434
-38.253 -21.941 0.852
8.405 -21.712 0.653
8.755 -21.866 0.728
37.328 -21.712 0.789
56.150 -22.052 1.193
110.411 -22.459 -0.118
110.989 -21.993 0.004
111.700 -21.941 0.023
-176.510 -22.503 0.296
-71.580 -23.419 0.196
-38.039 -23.117 0.678
-37.350 -22.913 0.678
37.048 -23.126 1.238
37.796 -22.967 1.192
110.295 -22.704 -0.078
110.932 -22.777 -0.060
-38.811 -24.204 0.643
-37.849 -23.716 0.544
11.415 -24.148 0.244
11.715 -23.858 0.521
37.147 -23.754 1.408
37.575 -23.866 1.346
-38.727 -25.005 0.599
-38.329 -24.779 0.340
-2.140 -25.010 -0.162
11.385 -25.039 0.225
11.705 -24.832 0.409
106.685 -24.700 0.267
165.345 -24.979 0.045
165.780 -24.700 -0.006
-173.870 -26.399 0.422
-39.515 -25.598 0.050
-39.133 -25.756 0.325
166.130 -26.425 0.173
166.535 -26.379 0.202
-173.975 -26.755 0.257
-139.985 -27.113 0.214
65.949 -27.332 0.006
-174.430 -28.300 0.137
-145.220 -28.256 0.609
-46.280 -28.447 0.063
-29.937 -28.120 0.548
65.465 -27.593 -0.328
65.995 -27.654 -0.716
66.575 -27.541 -0.074
-174.540 -28.674 0.152
-174.495 -28.521 0.116
-145.475 -28.779 0.930
-140.575 -29.457 0.319
-140.400 -29.154 0.397
-46.745 -29.357 0.171
-46.017 -29.001 0.056
-45.430 -29.382 0.041
-40.771 -29.006 0.563
12.395 -28.920 1.197
13.068 -29.193 1.066
112.435 -29.292 0.423
156.460 -29.290 -0.475
156.763 -29.167 -0.207
-140.845 -29.923 0.310
-46.084 -29.749 0.104
-45.251 -30.201 0.222
13.242 -29.668 1.007
13.644 -30.228 1.022
48.210 -30.285 0.261
48.990 -30.492 0.040
113.430 -30.382 0.375
154.421 -29.666 -0.366
154.879 -29.666 -0.405
-141.218 -30.568 0.345
-73.190 -31.000 0.211
-46.520 -31.218 0.169
-46.435 -31.266 0.313
-44.580 -30.554 0.050
-44.000 -30.860 0.235
-43.156 -31.292 0.052
49.060 -30.510 0.108
113.735 -31.039 0.593
-74.221 -32.344 0.135
-73.255 -32.085 0.356
-48.550 -32.185 -0.449
-47.997 -31.981 -0.301
-47.035 -32.157 -0.175
-45.994 -32.154 -0.063
-42.620 -31.554 0.377
-41.880 -31.914 0.403
-41.175 -32.258 0.236
14.730 -32.239 0.944
57.278 -32.461 0.618
169.174 -31.847 -0.604
-74.014 -32.882 0.361
-73.323 -32.903 0.275
-48.905 -33.254 -0.554
-47.901 -32.825 -0.460
-46.925 -33.065 -0.254
-46.034 -32.720 -0.205
-45.162 -33.160 -0.175
-37.150 -32.910 0.398
57.076 -32.744 0.432
57.700 -32.736 0.413
111.332 -32.759 0.438
-74.255 -34.181 0.479
-49.830 -34.039 -0.649
-49.275 -34.368 -0.509
-47.880 -33.892 -0.422
-47.058 -34.051 -0.426
-46.287 -34.428 -0.378
-43.885 -33.813 -0.089
-42.979 -34.272 -0.046
-50.749 -35.081 -0.632
-50.140 -35.271 -0.510
-48.985 -34.540 -0.428
-48.190 -34.571 -0.578
-45.805 -34.635 -0.387
-45.275 -34.863 -0.299
-42.515 -34.508 -0.317
-42.300 -34.617 -0.173
158.450 -35.366 -0.324
159.115 -34.947 -0.260
159.635 -35.484 -0.061
-51.555 -36.153 -0.290
-50.903 -36.062 -0.549
-50.174 -35.875 -0.469
-48.992 -36.000 -0.475
-48.340 -36.402 -0.501
23.815 -36.441 0.515
25.190 -36.044 0.061
110.037 -35.727 -0.183
129.183 -36.281 -0.631
158.125 -35.571 -0.095
159.480 -35.538 -0.069
159.728 -35.912 -0.159
-76.920 -37.467 -0.101
-51.767 -37.042 -0.615
-51.177 -36.861 -0.594
-50.395 -36.986 -0.621
-47.835 -36.708 -0.338
-47.286 -37.040 -0.417
24.030 -36.812 0.332
25.405 -36.858 0.021
25.537 -37.357 0.229
123.723 -36.937 -0.531
129.405 -36.609 -0.791
129.618 -36.923 -1.044
135.560 -37.201 -1.015
159.295 -36.704 -0.185
160.490 -37.494 -0.007
160.898 -37.278 -0.073
-76.635 -37.528 -0.162
-76.000 -37.664 -0.135
-75.345 -37.805 -0.284
-52.736 -38.007 -0.487
-52.002 -37.596 -0.482
25.707 -38.000 -0.137
50.320 -37.693 0.207
50.575 -37.664 0.334
137.150 -37.818 -0.986
160.290 -37.600 -0.030
161.170 -38.338 -0.084
161.795 -38.021 -0.041
25.972 -39.001 0.019
139.290 -39.310 -0.974
150.213 -39.215 -0.392
150.874 -39.225 -0.462
160.840 -38.505 -0.020
-53.570 -39.835 -0.322
-53.123 -39.806 -0.467
26.158 -39.708 0.230
139.275 -39.616 -0.995
150.024 -40.158 -0.069
-54.784 -41.103 -0.607
-54.368 -41.135 -0.572
128.339 -41.077 -0.758
129.982 -41.297 -0.887
131.068 -41.443 -0.985
141.040 -40.894 -1.158
150.125 -41.173 -0.175
150.630 -41.434 -0.208
-55.915 -42.284 -0.780
-55.215 -41.650 -0.735
132.175 -41.592 -0.777
132.964 -41.698 -0.749
150.025 -41.688 -0.142
150.770 -41.506 -0.091
-77.960 -43.115 -0.027
-77.000 -43.005 -0.030
-76.370 -42.933 -0.143
-55.035 -42.956 -0.748
-56.805 -43.744 -0.735
-56.445 -43.500 -0.546
-77.795 -44.894 0.117
-77.000 -44.733 -0.064
-76.390 -44.610 -0.199
-57.785 -46.438 -0.631
-57.711 -46.767 -0.508
-57.105 -46.971 -0.311
-56.085 -46.996 -0.528
100.390 -47.409 -0.101
100.540 -47.483 -0.047
-77.520 -47.598 -0.325
-77.190 -47.564 -0.454
-57.100 -47.523 -0.036
101.072 -47.682 -0.189
101.846 -47.863 -0.199
127.000 -48.236 -0.687
127.585 -48.309 -1.101
109.225 -49.448 -0.412
126.955 -48.763 -1.325
151.965 -49.328 0.380
109.445 -49.515 -0.526
109.865 -49.645 -0.477
114.445 -49.845 -1.361
114.975 -49.960 -1.301
133.170 -50.045 -0.674
133.650 -50.077 -0.648
151.243 -50.123 0.251
151.745 -49.570 0.309
151.216 -51.786 0.306
151.840 -52.752 0.363
153.826 -53.957 -0.123
153.918 -55.012 0.205
-57.845 -56.232 -0.713
-57.280 -56.354 -0.326
153.980 -55.725 0.174
-56.005 -56.631 -0.592
-54.740 -59.902 -0.143
92.715 -60.460 -0.578
40.022 -61.466 -0.047
89.400 -61.257 0.180
89.780 -61.320 0.214
91.166 -60.819 0.047
92.230 -61.299 -0.103
92.732 -61.033 -0.141
100.751 -61.073 -1.006
117.470 -61.276 -0.945
132.537 -61.094 -1.273
-64.068 -61.883 -0.338
61.660 -62.418 0.256
63.709 -62.330 0.346
65.585 -62.310 0.139
67.215 -62.260 0.216
68.709 -62.279 0.335
70.505 -62.060 0.304
72.111 -62.483 0.014
90.440 -61.917 0.232
91.030 -61.707 0.072
92.000 -61.687 -0.060
92.880 -61.755 -0.033
93.835 -62.297 -0.028
97.338 -62.398 0.052
100.698 -61.871 -0.525
140.060 -61.675 -0.343
151.090 -62.269 -0.114
-66.385 -63.489 -0.344
28.464 -62.934 -0.648
60.375 -63.486 0.350
62.055 -63.001 0.244
63.741 -63.007 0.274
65.536 -63.000 0.167
67.260 -63.004 0.186
68.725 -63.003 0.209
70.534 -62.992 0.243
72.139 -63.017 0.101
73.942 -63.434 0.119
75.768 -63.108 0.319
91.230 -62.861 0.138
91.530 -63.220 0.180
-97.987 -64.092 -0.022
-70.090 -64.415 -0.351
-46.418 -63.920 -1.169
60.425 -63.530 0.288
60.565 -63.654 0.224
62.450 -63.584 0.114
62.515 -63.680 0.104
63.769 -63.589 0.098
65.486 -63.676 0.112
67.303 -63.738 0.204
68.741 -63.703 0.382
70.553 -63.613 0.320
72.174 -63.706 0.208
75.735 -63.580 0.338
153.870 -64.330 -0.692
-97.982 -64.857 -0.095
-73.985 -65.100 -0.248
-73.193 -64.985 -0.331
-72.000 -65.166 -0.419
-71.180 -65.408 -0.522
25.500 -64.910 -0.041
153.590 -64.546 -0.192
-129.375 -66.399 0.114
-72.825 -66.281 -0.706
-72.099 -65.947 -0.350
-70.815 -65.515 -0.552
25.580 -66.350 -0.215
-4.955 -67.070 0.536
6.015 -67.011 0.528
6.036 -67.638 0.810
-40.965 -69.084 -0.173
-40.475 -68.785 -0.321
42.080 86.550 0.137
48.750 86.730 -0.534
63.640 86.930 -0.615
15.290 85.500 -1.481
20.000 85.790 -1.284
23.330 85.930 -1.117
35.000 86.130 0.019
37.860 86.325 -0.836
9.170 84.980 -0.503
-3.410 83.570 -0.524
1.370 84.260 -0.463
2.194 78.694 0.918
3.893 78.860 0.692
6.355 76.658 2.019
8.660 76.915 2.032
-6.815 75.521 0.706
-75.752 74.649 0.070
-8.691 75.158 0.759
-7.210 75.447 0.697
14.515 75.405 0.253
-74.535 74.306 -0.554
-68.710 74.227 0.335
-12.670 73.922 0.974
-11.725 74.303 0.962
-132.600 73.078 -1.774
-131.763 73.040 -1.815
-65.034 73.304 0.639
-14.404 73.201 1.218
3.488 72.529 0.779
-143.235 71.719 -1.576
-134.336 71.892 -1.876
-14.955 72.223 1.646
2.297 72.270 0.709
3.572 72.007 0.886
-61.380 70.953 0.692
-17.645 70.686 0.570
-17.310 71.000 0.766
4.330 71.363 0.633
-61.715 70.342 0.347
-19.370 70.080 0.782
-16.245 70.085 0.924
7.046 70.241 0.558
8.025 70.059 0.656
3.815 69.683 0.660
3.460 68.800 1.095
3.620 69.198 0.710
8.430 69.362 0.461
-52.545 58.522 0.037
-140.583 58.059 -0.691
-147.670 57.269 -1.147
-51.620 54.376 0.111
-50.955 53.871 -0.045
-50.485 53.514 -0.068
-50.255 53.340 -0.146
-41.520 48.506 0.761
-42.705 45.813 0.563
-7.355 45.885 -0.580
-7.615 45.490 -0.320
-57.160 43.586 -1.150
-134.610 42.911 -0.372
-134.000 42.978 -0.391
-133.000 43.089 -0.292
-132.005 43.159 -0.398
-131.000 43.063 -0.482
-130.000 42.951 -0.398
-129.000 42.839 -0.578
-128.000 42.722 -0.297
-127.000 42.604 -0.173
-126.310 42.523 -0.241
-58.555 43.008 -1.255
-58.223 42.971 -1.238
-57.020 43.325 -1.020
-53.600 43.240 -0.807
31.215 42.627 -1.598
-125.848 42.468 -0.115
-125.480 42.425 -0.650
-59.000 41.853 -1.245
-57.754 41.943 -1.025
-56.960 41.540 -1.204
-56.327 41.593 -1.318
-46.705 42.032 0.207
-46.285 41.857 -0.116
30.445 42.277 -1.482
30.720 42.402 -1.622
-59.490 40.673 -0.766
-57.914 41.080 -1.165
-57.122 40.968 -1.263
-55.765 41.236 -1.150
-55.245 40.736 -1.028
-13.245 40.662 -0.477
-58.605 39.695 -0.802
-58.100 40.140 -1.202
-56.725 40.356 -1.187
-56.000 39.879 -0.962
-54.839 40.169 -0.786
-54.230 39.761 -0.820
-54.918 39.187 -0.742
-53.997 39.028 -0.412
-53.450 38.986 -0.056
149.195 38.229 -0.047
-13.615 33.929 0.094
-12.000 33.652 0.002
144.005 33.619 0.134
151.335 34.034 -0.299
-14.575 33.223 0.812
-13.926 33.074 0.326
-13.085 33.107 0.524
-12.000 32.973 0.579
-10.899 33.417 -0.014
143.658 33.390 0.187
-14.800 32.339 0.581
-14.029 32.189 0.561
-13.000 32.271 0.779
-15.995 30.791 0.685
-14.993 30.800 0.976
-14.132 30.901 1.358
143.462 31.210 -0.045
-15.665 29.704 0.789
-15.245 30.206 1.228
-15.883 28.969 0.393
-15.290 28.589 0.063
-17.060 27.624 0.673
-16.480 27.506 0.461
-61.555 26.576 -0.574
-17.660 26.747 1.084
-16.992 27.123 0.624
-16.303 27.170 0.243
-94.615 25.672 -1.623
-61.650 26.459 -0.578
-59.550 26.466 -1.056
-18.000 26.251 1.262
-90.174 25.486 -0.949
-57.750 25.339 -1.062
-157.517 23.617 1.090
-157.470 23.924 1.076
-17.762 23.551 0.322
-17.464 23.529 0.641
-95.767 22.921 -1.898
-65.495 21.968 -0.460
-17.832 22.455 -0.030
37.745 22.435 0.823
-65.508 21.390 -0.291
38.590 20.523 1.202
38.287 20.204 1.098
38.673 19.770 0.725
155.715 19.656 0.217
38.455 19.314 0.945
38.560 19.435 0.898
118.110 18.534 -0.861
123.190 18.622 -0.755
123.610 18.792 -1.465
117.765 18.431 -0.789
122.845 18.483 -0.696
133.075 17.802 -1.114
133.775 17.822 -0.990
136.445 18.000 -0.532
137.000 17.998 -0.735
138.000 17.994 -0.914
138.770 17.991 -1.045
140.075 17.982 -0.794
141.000 17.985 -0.953
141.695 17.987 -1.123
144.100 18.014 -0.965
144.790 18.152 -0.811
156.665 17.618 0.230
158.425 17.729 0.284
158.625 17.585 0.324
84.635 17.047 -0.543
157.110 17.298 0.302
159.120 17.229 0.351
159.560 16.913 0.314
-65.620 15.650 0.682
-74.953 14.652 1.379
-74.500 14.754 1.080
84.546 15.179 -0.393
149.480 14.666 0.020
-76.667 13.751 1.048
-76.470 14.146 2.073
-74.615 14.454 1.526
-74.000 14.205 1.333
-73.053 13.822 0.562
-57.505 14.347 -1.664
-57.480 14.365 -1.764
113.795 13.826 -0.695
114.755 13.734 -0.753
-77.030 13.020 0.568
113.095 12.646 -1.043
114.240 12.999 -0.820
115.140 12.784 -0.943
155.170 12.923 0.102
156.000 13.163 -0.016
156.530 13.317 -0.091
-103.865 12.040 -0.382
-103.000 12.155 -0.378
-102.400 12.235 -0.341
-56.960 11.955 -1.501
-56.400 12.025 -1.495
83.535 12.265 -0.284
113.350 12.299 -0.982
113.601 11.958 -0.874
114.867 12.308 -0.794
-57.925 10.516 -1.399
-56.920 10.554 -1.085
-56.028 10.844 -1.136
-55.195 10.950 -0.946
82.808 11.457 -0.393
155.165 11.253 0.300
155.530 11.158 0.388
-57.809 10.108 -1.348
-57.000 9.955 -1.302
-53.970 9.837 -0.759
-56.797 9.227 -0.952
-56.712 8.328 -0.390
-50.205 7.552 -0.998
-91.340 7.210 -0.196
-43.630 5.839 0.118
-43.425 5.588 0.122
164.320 6.156 0.968
165.000 6.218 0.794
166.000 6.309 0.876
167.000 6.399 0.846
167.500 6.445 0.896
-43.155 5.257 0.090
-83.790 3.535 0.206
-44.350 4.237 -0.134
-3.889 3.809 0.029
5.740 3.563 0.106
51.245 3.858 -0.522
51.825 4.018 -0.593
-83.771 2.997 -0.366
-42.435 3.335 0.018
-4.510 2.948 -1.488
-92.665 2.205 0.520
-83.738 1.996 -0.456
6.930 0.942 0.666
7.825 1.483 1.086
7.425 0.421 0.753
7.515 0.327 0.789
-42.970 -0.784 -0.279
-37.165 -1.143 0.052
42.420 -2.394 -0.307
45.605 -1.561 -0.188
-102.798 -3.386 -0.696
42.200 -2.679 -0.556
45.175 -3.584 -0.345
8.495 -5.103 -0.538
9.576 -5.196 -0.328
45.000 -4.684 -0.266
45.665 -4.670 -0.033
80.175 -5.486 -1.040
9.964 -6.244 -0.468
128.129 -6.196 -2.658
128.211 -6.549 -2.554
42.042 -8.452 0.357
42.580 -8.556 0.271
-141.910 -11.433 0.684
42.194 -10.997 0.957
50.510 -11.518 0.501
-144.675 -13.418 0.348
-144.093 -13.132 0.327
-143.345 -12.622 0.047
50.230 -12.509 1.037
11.550 -13.919 1.075
-149.385 -15.732 0.778
-37.097 -16.044 0.031
-149.795 -16.580 1.003
-150.690 -18.390 1.073
-150.390 -17.795 1.432
3.210 -17.904 -0.456
3.550 -17.988 -0.365
-150.780 -18.570 1.038
7.165 -18.904 -0.252
8.001 -19.083 -0.101
8.550 -19.190 -0.028
41.135 -18.700 0.916
-150.955 -19.720 0.961
42.035 -22.494 1.159
41.880 -22.618 1.147
43.088 -24.254 1.013
43.335 -24.649 0.980
-11.745 -25.965 -0.512
-4.200 -25.970 -0.280
-3.345 -25.845 -0.242
155.735 -29.583 -0.402
-73.520 -30.999 0.296
-74.560 -34.077 0.456
-31.210 -36.485 0.226
123.045 -36.399 -0.287
124.135 -36.345 -0.159
127.381 -36.037 -0.583
127.995 -36.152 -0.734
130.013 -36.414 -0.999
130.548 -36.468 -1.131
132.305 -36.396 -0.778
-30.815 -36.553 0.169
-30.000 -36.694 0.138
-29.140 -36.858 0.002
123.335 -36.629 -0.461
127.215 -37.000 -0.904
128.056 -36.931 -0.942
130.903 -36.877 -1.147
131.984 -36.889 -1.187
132.730 -37.111 -1.296
136.900 -37.446 -1.010
127.054 -37.749 -1.034
130.173 -37.696 -1.324
131.481 -37.923 -1.626
131.541 -37.673 -1.554
133.015 -37.758 -1.186
137.896 -38.189 -1.184
138.403 -38.677 -1.008
139.500 -39.499 -0.250
139.925 -39.913 -0.724
140.560 -40.097 -0.024
150.578 -40.027 -0.609
129.000 -41.166 -1.084
140.433 -40.687 -0.952
141.807 -41.157 -0.926
127.350 -42.499 -1.043
127.806 -42.060 -1.116
131.490 -41.500 -0.795
134.000 -41.850 -0.954
134.819 -42.193 -0.922
142.185 -42.017 -0.763
142.635 -42.086 -0.818
127.190 -42.501 -1.050
135.051 -43.000 -0.926
141.430 -42.654 -0.591
141.585 -42.555 -0.417
143.204 -42.921 -0.581
143.575 -43.374 -0.604
135.124 -44.000 -0.825
143.351 -44.046 -0.771
143.680 -44.071 -0.673
152.015 -43.910 -0.003
153.000 -43.910 -0.264
153.995 -43.910 -0.205
163.025 -44.007 -0.061
128.430 -45.201 -0.992
135.195 -45.000 -0.828
144.151 -45.173 -0.615
149.470 -45.328 -0.143
149.540 -45.261 -0.051
151.485 -44.607 -0.241
151.830 -44.761 -0.234
163.390 -44.521 -0.114
128.483 -45.644 -0.921
128.972 -45.840 -1.070
129.918 -46.036 -1.007
135.268 -46.000 -0.821
144.353 -45.945 -0.509
144.579 -45.969 -0.544
150.265 -46.433 -0.396
150.645 -46.371 0.069
130.126 -46.999 -0.961
135.305 -46.514 -0.793
144.775 -46.767 -0.424
130.235 -47.950 -0.945
151.890 -47.823 -0.065
154.149 -48.495 0.013
154.535 -48.486 0.021
-51.605 -48.716 -0.723
-51.321 -48.886 -0.850
-45.815 -49.107 -0.413
-44.775 -49.071 -0.212
-44.410 -49.365 -0.140
147.295 -49.224 -0.149
153.057 -49.008 0.136
154.105 -48.735 0.145
154.744 -48.708 0.194
156.195 -49.241 -0.525
162.280 -49.425 -0.014
153.310 -49.838 -0.426
154.029 -49.939 -0.147
154.641 -49.806 -0.401
156.475 -49.527 -0.539
156.970 -50.031 -0.452
158.325 -50.170 -0.143
158.550 -50.449 -0.066
160.460 -50.473 0.075
161.000 -50.162 -0.150
161.825 -49.687 -0.087
-39.690 -51.358 0.169
-39.325 -51.089 0.287
150.803 -50.971 0.403
157.465 -50.536 -0.639
157.930 -51.010 -0.357
158.880 -50.858 0.208
160.015 -50.730 0.056
-40.820 -52.191 -0.172
-40.195 -51.731 0.004
151.585 -52.357 0.201
153.180 -53.411 -0.284
153.748 -53.269 -0.126
152.775 -53.524 -0.289
157.885 -54.485 -0.747
158.170 -54.610 -0.286
159.264 -55.076 -1.254
159.800 -55.310 -0.370
156.845 -56.500 -0.161
159.355 -56.500 -0.356
159.790 -56.500 -0.256
-29.895 -57.483 -0.514
-29.000 -57.444 -0.932
-28.155 -57.407 -0.849
-22.945 -57.173 -0.481
-22.000 -57.130 -0.219
-32.590 -57.600 -0.517
-32.000 -57.574 -0.896
-31.000 -57.531 -0.793
-30.400 -57.505 -0.564
-31.975 -59.093 -0.141
-31.000 -59.197 -0.397
-30.000 -59.303 -0.264
-29.275 -59.380 0.156
-61.395 -60.466 -0.335
-55.710 -60.259 -0.573
-22.920 -60.049 -0.213
-22.305 -60.114 -0.254
-2.055 -60.026 -0.763
90.875 -60.457 0.112
97.236 -60.404 -1.059
132.503 -60.456 -0.974
-61.115 -60.692 -0.240
46.870 -61.225 -0.213
97.266 -61.000 -0.830
107.335 -61.282 -0.599
112.231 -61.208 -0.866
126.018 -61.278 -1.250
131.460 -61.460 -1.316
140.040 -61.135 -0.489
140.845 -61.082 -0.673
157.255 -61.172 0.145
157.610 -61.421 0.054
168.235 -61.069 0.067
169.000 -61.299 0.460
169.580 -61.473 0.268
25.120 -62.463 -0.346
28.491 -62.312 -0.525
40.016 -61.959 -0.196
46.833 -62.007 -0.116
53.345 -62.320 -0.371
53.629 -62.106 -0.378
55.000 -62.253 -0.162
107.190 -61.799 -0.567
112.264 -61.515 -1.075
117.454 -61.609 -1.118
126.073 -62.001 -1.103
131.480 -62.020 -1.082
140.670 -61.557 -0.218
141.812 -61.899 -0.548
150.240 -62.057 0.074
151.755 -62.435 -0.272
158.115 -61.776 0.124
158.825 -62.274 0.202
170.144 -61.643 0.503
170.973 -61.873 0.607
172.000 -62.151 -0.045
172.565 -62.304 0.179
24.330 -63.313 -0.455
24.795 -62.812 -0.295
34.211 -63.108 -0.498
41.775 -63.337 -0.149
46.788 -62.935 -0.051
52.440 -63.420 -0.445
52.960 -63.081 -0.469
53.995 -62.742 -0.416
57.045 -63.075 -0.053
126.115 -62.549 -0.757
131.505 -62.720 -0.769
147.332 -63.092 -0.186
152.260 -62.560 -0.369
152.650 -62.658 -0.574
159.320 -62.622 0.086
159.995 -63.095 0.141
163.145 -63.467 0.101
164.000 -63.387 0.220
164.540 -63.336 0.304
166.435 -63.033 1.100
166.750 -63.295 1.273
-75.105 -64.461 -0.237
-70.700 -64.261 -0.592
23.360 -64.356 -0.178
23.825 -63.856 -0.324
25.437 -64.299 -0.474
27.259 -64.133 -0.852
28.417 -64.008 -0.865
34.306 -63.840 -0.471
39.105 -64.464 -0.389
40.081 -64.382 -0.273
41.000 -64.099 -0.142
41.973 -64.156 0.031
42.860 -64.114 0.107
52.280 -63.615 -0.474
56.495 -63.992 0.032
56.650 -63.733 -0.082
73.949 -63.634 0.278
92.080 -63.877 0.445
162.005 -63.574 0.100
162.650 -63.513 -0.042
167.245 -63.708 0.712
167.710 -64.096 0.326
-74.760 -64.610 -0.297
-69.625 -64.533 -0.591
-69.465 -64.574 -0.628
-27.510 -65.200 -1.151
-27.195 -65.355 -0.942
22.400 -65.388 -0.433
22.865 -64.888 -0.342
25.476 -64.799 -0.532
27.071 -65.000 -0.929
28.382 -64.777 -1.012
37.265 -64.635 -0.484
38.000 -64.567 -0.469
38.610 -64.510 -0.738
40.200 -64.503 -0.019
153.490 -64.623 -0.385
172.055 -65.433 0.086
172.555 -65.358 -0.076
-128.011 -66.017 0.021
-127.115 -66.298 0.075
-119.990 -66.149 -0.197
-104.532 -66.244 -0.398
-84.612 -66.147 -0.409
-75.545 -66.465 -0.275
-75.215 -66.216 -0.126
-74.245 -66.425 -1.061
-26.700 -65.598 -0.782
-26.000 -65.942 -0.230
-25.180 -66.345 -0.086
21.430 -66.431 -0.326
21.895 -65.931 -0.402
26.854 -66.000 -0.850
171.455 -65.523 0.093
171.550 -65.509 0.138
-132.515 -67.339 -0.211
-132.375 -67.424 -0.090
-130.804 -67.021 0.213
-130.005 -67.010 0.084
-128.959 -66.937 0.090
-128.000 -67.202 0.261
-126.992 -67.250 0.332
-126.246 -67.131 0.445
-119.980 -66.512 -0.104
-109.925 -67.023 -0.091
-104.538 -67.002 -0.527
-84.517 -66.576 -0.549
-84.485 -66.720 -0.522
-75.725 -66.601 -0.356
-74.892 -66.648 -0.879
-73.959 -66.772 -1.214
-73.445 -66.566 -1.011
-24.685 -66.588 -0.125
-24.000 -66.925 -0.359
-23.160 -67.337 -0.255
21.345 -66.522 -0.253
23.095 -66.767 -0.842
24.065 -66.991 -0.858
24.985 -66.999 -0.761
25.856 -66.765 -0.735
26.915 -66.621 -0.712
28.000 -66.610 -0.572
29.000 -66.591 -0.428
29.643 -66.579 -0.383
-131.870 -67.730 0.059
-131.045 -68.230 0.318
-130.080 -67.999 0.496
-126.797 -67.743 0.542
-125.914 -67.936 0.577
-125.079 -67.801 0.682
-124.060 -67.731 0.698
-109.975 -67.713 0.143
-104.545 -68.003 -0.442
-39.985 -68.486 -0.205
-28.935 -68.129 -0.299
-28.000 -68.126 -0.245
-27.000 -68.123 -0.164
-26.315 -68.121 -0.449
-22.665 -67.581 -0.411
-22.000 -67.907 -0.325
-21.145 -68.327 -0.357
-4.615 -67.521 0.290
-1.635 -67.774 0.500
-1.445 -67.662 0.498
25.465 -67.508 -0.698
25.555 -67.537 -0.678
-130.550 -68.529 0.316
-129.785 -68.599 0.501
-129.415 -68.807 0.527
-124.870 -68.659 0.642
-104.552 -69.005 -0.362
-98.850 -69.065 -0.441
-98.070 -68.921 -0.432
-89.655 -69.390 0.275
-89.000 -69.313 0.115
-88.019 -69.199 -0.084
-31.545 -69.492 -0.465
-31.000 -69.410 -0.480
-30.000 -69.260 -0.475
-29.000 -69.110 -0.371
-28.350 -69.013 -0.055
-20.650 -68.571 -0.138
-20.000 -68.890 -0.203
-19.089 -69.332 -0.200
176.040 -69.280 0.090
-104.558 -69.722 -0.325
-103.510 -69.986 -0.293
-102.995 -69.609 -0.285
-102.000 -69.500 -0.176
-101.000 -69.500 -0.222
-100.000 -69.500 -0.115
-99.000 -69.500 -0.354
-98.000 -69.500 -0.272
-97.000 -69.500 -0.163
-96.485 -69.500 -0.190
-33.905 -69.846 -0.412
-33.000 -69.710 -0.445
-32.050 -69.568 -0.442
-18.580 -69.518 -0.282
-18.000 -69.646 -0.106
-17.000 -69.867 0.061
-16.450 -69.989 -0.142
121.350 88.555 -0.568
125.000 88.723 -0.753
129.200 88.917 -0.350
100.500 87.592 -0.604
105.000 87.800 -0.806
110.000 88.031 -0.592
115.000 88.262 -0.938
118.800 88.437 -0.809
77.150 86.515 -0.208
80.000 86.646 0.248
85.000 86.877 0.275
90.000 87.108 -0.508
95.000 87.338 -0.546
97.950 87.475 -0.853
74.750 86.404 -1.025
16.550 85.252 -0.709
18.300 84.747 -0.555
20.850 84.010 -0.516
25.767 83.653 -0.596
27.650 83.584 -0.673
24.350 82.999 -0.612
28.900 82.984 -0.890
26.750 82.306 -0.822
29.326 82.075 -0.564
-3.150 79.962 0.227
-0.400 79.705 0.446
-2.700 77.759 -0.280
-1.900 77.614 -0.277
0.650 77.154 0.233
5.350 76.306 1.316
-147.545 72.169 -1.841
-140.640 71.647 -1.777
-132.295 72.037 -1.285
-140.522 71.387 -2.050
-135.366 71.403 -2.224
-103.535 -70.013 -0.358
-16.360 -70.009 -0.193
-158.745 -72.388 -0.108
-155.445 -72.408 -0.427
-18.400 69.979 0.683
2.990 68.564 1.338
-0.675 67.708 1.000
3.300 68.394 1.873
3.515 68.276 2.322
-23.285 63.705 2.525
-0.120 64.180 0.610
-36.111 62.676 1.418
-23.330 62.986 1.860
-39.500 61.757 1.753
-39.205 61.629 1.521
-34.996 62.317 1.066
-34.014 62.114 0.985
-33.000 62.073 1.276
-31.998 62.061 1.331
-31.000 62.006 1.401
-30.000 61.937 1.416
-29.000 61.876 1.566
-28.000 61.816 1.510
-24.999 61.628 1.569
-24.095 61.540 1.413
-57.525 60.526 -0.313
-38.705 61.410 1.282
-38.000 61.126 0.979
-37.010 60.786 0.902
-36.016 60.575 1.012
-35.000 60.532 1.142
-33.999 60.521 1.138
-33.470 60.502 0.991
-28.792 61.275 1.922
-27.001 61.291 1.785
-23.597 61.490 1.601
-23.000 61.433 1.439
-22.001 61.340 1.508
-20.999 61.257 1.476
-19.967 61.130 1.152
-19.018 60.748 1.348
-32.969 60.474 1.168
-32.001 60.421 1.126
-31.000 60.369 1.451
-30.001 60.316 1.427
-29.002 60.253 1.576
-28.000 60.200 1.420
-26.999 60.142 1.273
-26.000 60.046 1.156
-25.000 59.956 1.284
-24.000 59.891 1.435
-23.000 59.829 1.269
-22.291 59.774 1.094
-18.539 60.470 1.548
-18.215 60.219 1.616
-59.500 59.311 1.313
-175.005 56.509 -0.839
-139.967 57.317 -0.495
-31.780 57.476 1.247
-176.715 55.622 -0.784
-176.000 55.987 -0.748
-175.260 56.375 -0.783
-173.870 56.174 -0.888
-172.290 55.647 -0.807
168.390 56.393 -0.532
-178.692 55.175 -0.478
-177.955 54.962 -1.001
-177.212 55.352 -0.869
-176.500 54.667 -0.538
-135.633 54.533 -0.166
-135.100 54.642 -0.109
-42.908 54.775 0.778
-176.067 53.900 -0.365
-135.992 54.200 0.286
-175.950 52.642 0.148
-161.683 53.367 -2.503
-157.100 53.233 -0.157
-141.167 52.600 -0.016
-138.750 53.133 -0.282
177.442 53.392 -0.369
-154.467 51.500 0.049
-148.367 50.733 -0.114
-145.183 51.383 0.006
-169.800 47.933 -0.218
-174.817 46.883 -0.518
-143.183 45.567 -0.266
-128.800 45.867 0.031
-127.033 46.500 -0.160
-125.975 46.233 -0.588
-15.350 46.142 0.923
-144.466 45.025 -0.223
-132.633 44.700 -0.286
-163.783 44.300 -0.319
-143.117 43.817 -0.367
-140.633 43.967 -0.468
-137.100 43.750 -0.211
-125.833 44.108 -0.362
-134.450 43.000 -0.292
-160.650 40.983 0.090
-128.409 40.900 -0.084
-126.667 40.967 -0.142
-18.958 40.558 -0.340
-172.983 39.700 -0.035
-136.267 40.300 -0.791
-128.183 40.067 -1.508
-67.230 39.741 -0.803
-65.270 40.238 0.015
-58.725 39.562 -0.631
-136.167 38.900 -0.259
-128.000 38.583 -0.478
-124.917 39.150 -0.250
-70.720 38.569 -0.100
-70.004 38.828 0.060
-68.945 39.158 0.107
-68.221 39.399 0.097
-58.980 38.999 -0.453
-39.042 38.750 -0.065
-37.125 39.125 0.526
-35.292 38.750 0.871
-125.019 38.144 -0.721
-71.914 38.018 -0.104
-71.237 38.116 -0.116
-69.990 37.540 0.080
-66.175 38.233 0.613
-64.555 37.516 0.183
-64.000 37.704 0.223
-63.000 37.733 0.069
-62.290 37.554 -0.378
-60.820 37.612 -0.274
-60.000 37.900 0.183
-59.349 38.229 -0.125
-32.190 37.502 -0.078
148.854 37.615 0.044
171.992 37.700 0.146
-157.033 37.150 -0.173
-143.117 37.250 -0.385
-125.867 37.467 -0.629
-72.920 37.096 -0.199
-72.474 36.957 -0.096
-70.575 37.260 0.056
-69.224 36.824 0.104
-67.520 36.508 0.473
-67.000 36.685 -0.011
-66.000 37.025 0.022
-65.050 37.348 0.175
-61.850 37.443 -0.397
-61.310 37.440 -0.001
-32.522 37.326 1.331
150.457 36.767 0.095
151.405 36.627 0.001
-125.889 35.622 -0.429
-125.033 35.517 -0.467
-72.290 35.660 -0.089
-69.945 36.064 0.152
-68.898 36.216 0.164
-68.025 36.337 0.298
-26.000 35.950 1.009
17.859 36.004 -0.714
147.758 36.343 -0.134
150.845 36.170 -0.097
-142.517 35.083 -0.269
-125.100 34.978 -0.490
-123.267 35.150 -0.559
-73.974 35.019 -0.263
-69.420 34.779 -0.087
-26.042 35.292 1.328
155.304 34.804 -0.135
-173.050 34.333 0.424
-134.250 34.450 -0.595
-126.033 34.483 -0.613
-122.133 34.367 -0.017
-74.739 33.683 -0.585
-74.012 33.992 -0.618
-70.156 34.267 -0.122
-69.225 33.908 0.092
-63.033 34.467 0.530
145.042 34.302 -0.242
150.897 34.060 -0.061
-127.067 32.833 -0.195
-125.933 32.983 -0.215
-75.628 32.633 -0.612
-74.968 32.885 -0.659
-69.940 33.005 -0.184
-57.500 32.858 0.349
-53.433 32.867 -0.024
28.103 33.138 -1.638
144.603 33.095 -0.236
152.508 32.521 0.004
-172.067 32.133 0.128
-154.650 32.300 -0.196
-75.078 32.354 -0.515
-73.955 31.602 -0.454
-71.778 32.446 -0.437
-70.615 32.446 -0.475
-32.708 31.883 0.777
-31.142 31.850 0.455
151.758 32.488 -0.045
-135.400 31.083 0.193
-120.900 31.300 -0.266
-120.125 30.925 -0.165
-75.566 30.932 0.206
-75.012 30.994 0.300
-74.330 31.410 -0.298
-66.005 30.722 0.453
-152.675 30.450 -0.022
-121.733 29.867 0.105
-75.585 30.143 0.161
-75.233 30.238 0.217
-74.000 30.132 -0.029
-73.425 30.458 -0.405
135.067 29.742 -1.019
-153.517 28.750 0.046
-152.467 29.333 -0.515
-117.583 29.133 0.155
-117.408 28.775 0.046
-76.013 29.058 0.030
-74.775 28.633 0.052
-74.000 29.010 -0.030
-73.340 29.331 0.001
-64.650 29.423 0.491
136.533 28.750 -0.868
-174.175 28.338 0.327
-127.417 28.083 -0.499
-75.798 28.087 0.039
-75.254 28.026 0.173
-169.083 26.700 1.178
-121.583 27.400 -0.546
-75.995 27.344 0.034
-74.721 27.013 0.208
-74.148 26.790 0.326
-70.225 27.497 -0.120
-69.145 27.369 -0.006
-163.700 25.500 0.720
-94.979 26.006 -1.275
-74.115 26.342 0.293
-72.450 25.733 -0.180
-70.150 26.133 -0.335
-67.592 25.767 -0.054
-178.017 25.442 0.625
-160.317 24.667 1.036
-134.567 24.767 0.196
-90.585 25.317 -1.054
-90.475 25.072 -1.138
-69.258 24.658 -0.184
-56.000 24.698 -1.003
-55.370 24.532 -0.833
-160.483 23.958 0.832
-157.380 24.070 1.075
-156.133 23.617 1.414
-116.633 24.500 -0.070
-54.875 24.401 -0.534
-51.460 23.508 -0.424
128.117 23.858 -0.781
135.725 23.708 0.037
146.083 23.575 -0.152
-156.583 23.100 1.251
-155.900 22.800 1.233
-151.000 23.000 -0.378
-148.050 22.967 -0.061
-137.500 23.067 -0.269
-58.250 23.492 -0.407
-50.000 23.131 -0.107
-48.997 22.878 -0.178
-48.000 22.795 -0.090
130.967 23.383 -0.272
138.775 23.442 -0.684
-166.117 22.500 0.889
-155.217 22.217 1.191
-116.050 21.967 -0.247
65.505 22.488 -0.205
-127.004 21.271 -0.319
-161.417 20.300 1.135
-160.000 19.542 0.714
131.883 20.100 -0.714
-177.317 19.033 0.697
-159.070 19.360 0.731
-157.700 18.867 0.944
-128.500 19.367 -0.212
67.485 18.970 0.372
138.350 19.050 -0.905
-57.375 17.942 -0.744
69.705 17.619 0.565
140.992 18.092 -0.770
-23.495 17.296 1.338
69.945 16.826 0.583
69.800 16.426 0.510
136.783 15.625 -0.572
-151.900 14.683 -0.119
-124.200 14.967 -0.213
-18.590 15.435 1.192
-18.385 15.281 1.189
51.542 14.583 0.753
52.017 14.017 0.816
53.067 13.692 0.692
69.415 13.730 0.226
69.580 13.786 0.453
130.525 14.158 -1.104
-24.354 13.479 0.869
46.300 12.908 1.115
69.845 12.602 0.224
-111.050 12.217 -0.080
-103.800 11.633 -0.050
-98.783 12.183 -0.519
44.308 11.767 1.912
168.367 12.450 1.101
-145.883 10.717 0.065
-104.767 10.883 -0.128
-57.905 10.581 -1.397
45.008 10.883 1.747
69.377 11.317 -0.011
69.865 10.985 0.214
161.583 11.333 1.495
165.167 11.200 0.972
-93.483 9.800 0.214
-57.862 9.953 -1.310
-57.086 9.948 -1.350
70.143 9.907 0.046
70.755 9.596 0.159
-57.730 9.234 -0.625
-56.997 8.918 -0.693
70.190 9.460 0.084
-56.556 8.415 -0.404
70.440 8.177 0.427
120.283 7.575 0.370
70.667 7.367 0.551
-123.983 5.783 -0.328
122.142 5.558 -0.853
-115.683 4.067 -0.378
-4.200 3.900 -0.112
122.833 4.083 -1.293
123.625 2.925 -1.649
138.167 2.908 -0.149
-19.658 2.450 0.169
140.333 2.408 0.056
143.267 1.858 -0.179
-116.083 1.450 -0.068
-39.083 0.983 0.507
169.183 0.783 0.599
-123.433 0.183 -0.359
-23.858 -0.075 -0.103
-22.683 0.175 -0.110
-131.517 -1.383 -0.340
-40.067 -1.117 0.169
-26.667 -1.267 0.392
8.020 -1.469 1.606
47.033 -2.917 0.276
49.600 -3.467 0.477
-114.217 -3.617 -0.665
-34.565 -3.547 0.546
51.483 -3.600 0.456
54.595 -5.429 1.335
58.483 -5.333 0.734
59.217 -5.417 0.859
60.033 -5.450 0.384
74.300 -5.367 0.223
75.083 -5.350 0.119
54.836 -5.958 0.891
63.067 -5.517 0.807
63.733 -5.550 0.028
69.975 -5.658 0.070
-118.667 -7.333 -0.565
54.640 -6.647 0.789
174.933 -9.017 0.400
-110.633 -9.667 0.060
56.500 -9.833 1.080
57.117 -9.967 1.341
57.883 -10.083 1.128
-142.417 -11.333 0.323
-133.583 -10.750 0.377
153.811 -10.648 -0.231
-128.950 -11.767 0.077
109.617 -11.667 0.428
115.450 -11.883 0.803
-143.550 -12.783 0.251
-108.500 -13.467 -0.468
93.217 -13.150 -0.324
115.350 -12.850 0.550
149.917 -12.583 -0.793
-119.167 -14.267 -0.085
-79.067 -13.583 0.045
90.800 -13.833 -0.448
115.550 -13.783 -0.177
118.433 -13.517 -0.060
154.109 -14.351 -0.388
-136.100 -15.033 -0.173
-112.083 -14.733 -0.249
108.150 -14.950 0.265
114.037 -15.397 0.353
150.622 -14.804 -0.345
153.440 -15.046 -0.191
153.808 -14.861 -0.355
-168.517 -16.267 -0.062
114.226 -15.551 0.084
-160.983 -17.467 0.938
-176.350 -18.317 0.472
-158.667 -17.533 0.677
-141.433 -18.467 0.045
-176.440 -18.573 0.495
-81.550 -18.983 0.270
38.255 -18.717 0.383
-175.940 -19.515 0.121
-113.750 -20.300 -0.393
162.320 -20.010 0.011
162.703 -19.952 0.085
-37.440 -21.475 0.550
97.200 -20.717 -0.334
-147.633 -21.700 0.215
-79.067 -21.550 0.220
-38.536 -22.268 1.040
-37.321 -21.656 0.563
37.812 -22.141 0.868
178.550 -21.917 -1.048
-117.833 -23.267 0.004
-38.575 -22.533 1.171
10.282 -23.146 0.250
10.802 -22.999 0.431
106.390 -23.224 0.216
106.525 -23.274 -0.075
111.590 -22.698 0.116
164.950 -23.000 0.377
10.325 -23.597 0.154
36.450 -24.023 1.945
166.039 -24.321 0.069
170.833 -23.900 -0.521
171.800 -23.533 -1.111
57.450 -24.567 0.234
104.200 -25.050 0.995
-36.660 -26.223 0.361
-36.360 -26.228 0.288
11.273 -26.255 0.279
11.918 -26.014 0.451
-88.817 -27.067 0.249
11.390 -26.869 0.305
11.961 -27.001 0.594
58.167 -26.933 -0.483
110.117 -27.082 -0.228
155.867 -27.100 -0.450
-106.933 -27.933 0.020
-96.317 -28.017 0.356
-45.405 -27.542 0.495
156.100 -27.783 -0.187
-43.615 -29.400 -0.287
-41.505 -28.625 0.429
37.146 -29.492 0.252
112.535 -29.258 0.128
-43.955 -29.802 -0.025
33.375 -30.271 1.378
33.680 -30.383 1.340
111.517 -29.700 0.446
113.573 -30.276 0.631
176.000 -29.500 -0.476
176.767 -29.917 -0.826
13.113 -30.943 0.706
13.700 -30.945 0.788
48.415 -31.053 0.408
61.867 -31.483 0.101
